-2.19302089767 3.63083653075 0.339554766284
0.862775735605 -0.794782533777 2.24864269541
3.91165189298 -1.77223893718 -0.409164026909
-0.795635921383 0.397753412025 -3.85220167064
-2.24810518249 3.7728865303 0.40298479449
0.862007541657 -0.680916292358 2.16043350869
3.82743585139 -1.78159182314 -0.414954270332
-0.760487196605 0.40263990754 -3.83206854742
-2.02461303965 3.5339024965 0.292397107031
0.861097989254 -0.739448369119 2.22308455807
3.89430851143 -1.58973123704 -0.436910624542
-0.765888629844 0.426463892859 -3.66972764437
-2.08628166827 3.53769538462 0.365702665912
0.881046219506 -0.691727424543 1.91716358188
3.63280156879 -1.52758001972 -0.468020203624
-0.73177802786 0.433687897276 -3.6334818112
-2.05688461024 3.59863518843 0.364665987176
0.873225560708 -0.668342690759 2.00072238977
3.70499930352 -1.66254811715 -0.442469596684
-0.823340514729 0.417993219247 -3.70589094226
-2.07238161567 3.5365739468 0.324140551403
0.882187236681 -0.701464494319 1.9104387735
3.61228141846 -1.610397806 -0.45783534671
-0.837272660006 0.422824255255 -3.66831049659
-1.79755162106 3.38783620002 0.341588098919
0.888779886051 -0.706262135161 1.82711093413
3.57004536357 -1.44697296467 -0.484943974134
-0.808860195093 0.440264504953 -3.56122141705
-1.90824873344 3.4565036912 0.361618422945
0.891602283601 -0.696617730126 1.78132765263
3.53755601979 -1.44101753835 -0.48855470721
-0.720983533472 0.448107091992 -3.5403331764
-1.94554409299 3.47430778838 0.395343655387
0.887196016751 -0.640614274705 1.79139422177
3.54710799774 -1.43301136914 -0.48889793151
-0.781084264576 0.443243349741 -3.55125335732
-1.94650081077 3.44500422182 0.349571928427
0.888405038009 -0.68234492138 1.81141558773
3.54925549494 -1.32927178553 -0.50365201819
-0.712526851406 0.456782410993 -3.48500267134
-1.66573978675 3.31155294546 0.351195761931
0.903443025952 -0.62998583972 1.56663744332
3.38797794085 -1.31763595035 -0.51899468073
-0.779072313468 0.454278689443 -3.47769552226
-1.73101635592 3.35328161525 0.402020375288
0.895076716928 -0.656870372891 1.70087827633
3.47710296911 -1.3642019921 -0.504737409562
-0.76464029399 0.45202156139 -3.49813028094
-1.69690725381 3.30421109434 0.33979028508
0.897037449455 -0.68217462973 1.69673014052
3.47474777226 -1.15206225064 -0.535480163333
-0.700427783747 0.47921285694 -3.33839709815
-1.65028820155 3.29422662858 0.393723733357
0.912411020307 -0.672318282091 1.48422971992
3.31809763812 -1.19667787366 -0.54233178272
-0.773063589071 0.47173990265 -3.36233079316
-1.63589401986 3.2789323358 0.354109957568
0.908111190537 -0.649878334079 1.52188923488
3.35075368867 -1.15425571107 -0.545672164141
-0.727434247349 0.477646260633 -3.33913748444
-1.5688741066 3.23759712129 0.366105525984
0.904782326067 -0.637313255869 1.55519934284
3.35293233929 -1.21707279172 -0.536443344386
-0.725219099202 0.472669023608 -3.37344783532
-1.41814227546 3.12749756942 0.318314863055
0.921775838072 -0.648162954808 1.33909882229
3.20969690479 -1.13490146591 -0.560412499669
-0.725469345618 0.48308045645 -3.30326867678
-1.50311384212 3.18960221679 0.393450276156
0.915686855274 -0.623025215582 1.39816613428
